2.853942765723873265e+01,6.745024613282477333e+01,3.401196544109681952e+01
2.853537669100139951e+01,6.771785841472426171e+01,3.400713768752999044e+01
2.853132572476406281e+01,6.798547069662375009e+01,3.400230993396316848e+01
2.852727475852672612e+01,6.825308297852325268e+01,3.399748218039634651e+01
2.852322379228939297e+01,6.852069526042275527e+01,3.399265442682953164e+01
2.851917282605205273e+01,6.878830754232225786e+01,3.398782667326270257e+01
2.851512185981471958e+01,6.905591982422174624e+01,3.398299891969587350e+01
2.851107089357738289e+01,6.932353210612124883e+01,3.397817116612905153e+01
2.877221000980371812e+01,6.344236408902953173e+01,3.428938464605866443e+01
2.876815904356638498e+01,6.370997637092903432e+01,3.428455689249184246e+01
2.876005711109170804e+01,6.424520093472801818e+01,3.427490138535819852e+01
2.875600614485437134e+01,6.451281321662752077e+01,3.427007363179136945e+01
2.875195517861703465e+01,6.478042549852702336e+01,3.426524587822454748e+01
2.874385324614236481e+01,6.531565006232601434e+01,3.425559037109090355e+01
2.873980227990502812e+01,6.558326234422551693e+01,3.425076261752408158e+01
2.873575131366768787e+01,6.585087462612501952e+01,3.424593486395725250e+01
2.873170034743035117e+01,6.611848690802450790e+01,3.424110711039043053e+01
2.872764938119301803e+01,6.638609918992399628e+01,3.423627935682360857e+01
2.899283946365668641e+01,6.023731889093279790e+01,3.455232059032004344e+01
2.898878849741935326e+01,6.050493117283229338e+01,3.454749283675322147e+01
2.898473753118201657e+01,6.077254345473179598e+01,3.454266508318639239e+01
2.898068656494467987e+01,6.104015573663129146e+01,3.453783732961957043e+01
2.897663559870734673e+01,6.130776801853078695e+01,3.453300957605275556e+01
2.897258463247000648e+01,6.157538030043028954e+01,3.452818182248592649e+01
2.896853366623267334e+01,6.184299258232978502e+01,3.452335406891910452e+01
2.896448269999533665e+01,6.211060486422928761e+01,3.451852631535228255e+01
2.896043173375799640e+01,6.237821714612877599e+01,3.451369856178546058e+01
2.895638076752066326e+01,6.264582942802827148e+01,3.450887080821863151e+01
2.895232980128332301e+01,6.291344170992777407e+01,3.450404305465180954e+01
2.894827883504598987e+01,6.318105399182726956e+01,3.449921530108498047e+01
2.893612593633398333e+01,6.398389083752576312e+01,3.448473204038452167e+01
2.891992207138463655e+01,6.505433996512375927e+01,3.446542102611721958e+01
2.920131601879765881e+01,5.783511053853455763e+01,3.480077327388095654e+01
2.919726505256032212e+01,5.810272282043405312e+01,3.479594552031414167e+01
2.919321408632298187e+01,5.837033510233354860e+01,3.479111776674731260e+01
2.918916312008564873e+01,5.863794738423305120e+01,3.478629001318048353e+01
2.918511215384830848e+01,5.890555966613254668e+01,3.478146225961366156e+01
2.918106118761097534e+01,5.917317194803204217e+01,3.477663450604683959e+01
2.917701022137363864e+01,5.944078422993153765e+01,3.477180675248001762e+01
2.917295925513630195e+01,5.970839651183103314e+01,3.476697899891319565e+01
2.916890828889896525e+01,5.997600879373053573e+01,3.476215124534636658e+01
2.942194547265063065e+01,5.463006534043781670e+01,3.506370921814232844e+01
2.941789450641329395e+01,5.489767762233731929e+01,3.505888146457550647e+01
2.941384354017596081e+01,5.516528990423681478e+01,3.505405371100869161e+01
2.940979257393861701e+01,5.543290218613631737e+01,3.504922595744186253e+01
2.940574160770128032e+01,5.570051446803581285e+01,3.504439820387504056e+01
2.940169064146394717e+01,5.596812674993530123e+01,3.503957045030821860e+01
2.939763967522661048e+01,5.623573903183480382e+01,3.503474269674139663e+01
2.939358870898927734e+01,5.650335131373429931e+01,3.502991494317457466e+01
2.938953774275194064e+01,5.677096359563379480e+01,3.502508718960774559e+01
2.938548677651460039e+01,5.703857587753329739e+01,3.502025943604091651e+01
2.938143581027726370e+01,5.730618815943279287e+01,3.501543168247409454e+01
2.937738484403992700e+01,5.757380044133228836e+01,3.501060392890727258e+01
2.965472782521561612e+01,5.062218329664259642e+01,3.534112842310418756e+01
2.965067685897827943e+01,5.088979557854208480e+01,3.533630066953736559e+01
2.964662589274093918e+01,5.115740786044158739e+01,3.533147291597053652e+01
2.964257492650360604e+01,5.142502014234108287e+01,3.532664516240371455e+01
2.963852396026626934e+01,5.169263242424057836e+01,3.532181740883689258e+01
2.963447299402893620e+01,5.196024470614008095e+01,3.531698965527007772e+01
2.963042202779159595e+01,5.222785698803957644e+01,3.531216190170325575e+01
2.962637106155425570e+01,5.249546926993907903e+01,3.530733414813642668e+01
2.962232009531692256e+01,5.276308155183857451e+01,3.530250639456959760e+01
2.961826912907958587e+01,5.303069383373806289e+01,3.529767864100277563e+01
2.961421816284225272e+01,5.329830611563756548e+01,3.529285088743595367e+01
2.961016719660491603e+01,5.356591839753706097e+01,3.528802313386913170e+01
2.960611623036758289e+01,5.383353067943655645e+01,3.528319538030230973e+01
2.960206526413023909e+01,5.410114296133605905e+01,3.527836762673548066e+01
2.959801429789290239e+01,5.436875524323555453e+01,3.527353987316865869e+01
2.987535727906858796e+01,4.741713809854586259e+01,3.560406436736556657e+01
2.987130631283125126e+01,4.768475038044535097e+01,3.559923661379874460e+01
2.986725534659391812e+01,4.795236266234484646e+01,3.559440886023192263e+01
2.985915341411923762e+01,4.848758722614384453e+01,3.558475335309827159e+01
2.985510244788190448e+01,4.875519950804334002e+01,3.557992559953144251e+01
2.985105148164456779e+01,4.902281178994284261e+01,3.557509784596462765e+01
2.984700051540723464e+01,4.929042407184233809e+01,3.557027009239780568e+01
2.984294954916989440e+01,4.955803635374184068e+01,3.556544233883097661e+01
2.983889858293255770e+01,4.982564863564132907e+01,3.556061458526415464e+01
2.983484761669522456e+01,5.009326091754082455e+01,3.555578683169733267e+01
2.983079665045788786e+01,5.036087319944032714e+01,3.555095907813051070e+01
3.010003769915889293e+01,4.394448061854962617e+01,3.587182806519376754e+01
3.009598673292155624e+01,4.421209290044912166e+01,3.586700031162694557e+01
3.009193576668421954e+01,4.447970518234861714e+01,3.586217255806012361e+01
3.008788480044688640e+01,4.474731746424811263e+01,3.585734480449329453e+01
3.008383383420954615e+01,4.501492974614760811e+01,3.585251705092647256e+01
3.007978286797220946e+01,4.528254202804711070e+01,3.584768929735964349e+01
3.007573190173487632e+01,4.555015430994660619e+01,3.584286154379282152e+01
3.007168093549753962e+01,4.581776659184610878e+01,3.583803379022599955e+01
3.006762996926020648e+01,4.608537887374560427e+01,3.583320603665918469e+01
3.006357900302286978e+01,4.635299115564509975e+01,3.582837828309236272e+01
3.005952803678552598e+01,4.662060343754459524e+01,3.582355052952553365e+01
3.005547707054819284e+01,4.688821571944409072e+01,3.581872277595871168e+01
3.005142610431085615e+01,4.715582800134358621e+01,3.581389502239188261e+01
3.003522223936151292e+01,4.822627712894158236e+01,3.579458400812458763e+01
3.032876908548654526e+01,4.020421085665389427e+01,3.614441951658880470e+01
3.030851425429986179e+01,4.154227226615137880e+01,3.612028074875468064e+01
3.030446328806252509e+01,4.180988454805087429e+01,3.611545299518785868e+01
3.030041232182518840e+01,4.207749682995036977e+01,3.611062524162102960e+01
3.029636135558785170e+01,4.234510911184987236e+01,3.610579748805420763e+01
3.029231038935051501e+01,4.261272139374936785e+01,3.610096973448738567e+01
3.028825942311318187e+01,4.288033367564887044e+01,3.609614198092055659e+01
3.028420845687584517e+01,4.314794595754836593e+01,3.609131422735374173e+01
3.028015749063851203e+01,4.341555823944785431e+01,3.608648647378691976e+01
3.027610652440116823e+01,4.368317052134735690e+01,3.608165872022009069e+01
3.053319467439016677e+01,3.806961478615514949e+01,3.638804444658288162e+01
3.052914370815283363e+01,3.833722706805463787e+01,3.638321669301605965e+01
3.052509274191549693e+01,3.860483934995414046e+01,3.637838893944923768e+01
3.052104177567816379e+01,3.887245163185363594e+01,3.637356118588240861e+01
3.051699080944081999e+01,3.914006391375313854e+01,3.636873343231557953e+01
3.051293984320348329e+01,3.940767619565263402e+01,3.636390567874875757e+01
3.050888887696615015e+01,3.967528847755212951e+01,3.635907792518193560e+01
3.050483791072881345e+01,3.994290075945163210e+01,3.635425017161512073e+01
3.049673597825414362e+01,4.047812532325061596e+01,3.634459466448147680e+01
3.049268501201680692e+01,4.074573760515011855e+01,3.633976691091464772e+01
3.048863404577947023e+01,4.101334988704961404e+01,3.633493915734782576e+01
3.048458307954213353e+01,4.128096216894911663e+01,3.633011140378099668e+01
3.076192606071781555e+01,3.432934502425941758e+01,3.666063589797791167e+01
3.075787509448047885e+01,3.459695730615891307e+01,3.665580814441108970e+01
3.075382412824314216e+01,3.486456958805841566e+01,3.665098039084426063e+01
3.074977316200580546e+01,3.513218186995790404e+01,3.664615263727743155e+01
3.074572219576846877e+01,3.539979415185739953e+01,3.664132488371060958e+01
3.074167122953113562e+01,3.566740643375690212e+01,3.663649713014378761e+01
3.073762026329379538e+01,3.593501871565639760e+01,3.663166937657696565e+01
3.073356929705645868e+01,3.620263099755590019e+01,3.662684162301013657e+01
3.072951833081912199e+01,3.647024327945539568e+01,3.662201386944331460e+01
3.072546736458178529e+01,3.673785556135489117e+01,3.661718611587649264e+01
3.072141639834445215e+01,3.700546784325439376e+01,3.661235836230967777e+01
3.071736543210711545e+01,3.727308012515388214e+01,3.660753060874284870e+01
3.071331446586978231e+01,3.754069240705337762e+01,3.660270285517602673e+01
3.070926349963243851e+01,3.780830468895288021e+01,3.659787510160919766e+01
3.099470841328279747e+01,3.032146298046418664e+01,3.693805510293975658e+01
3.099065744704546077e+01,3.058907526236368568e+01,3.693322734937293461e+01
3.098660648080812408e+01,3.085668754426318117e+01,3.692839959580610554e+01
3.097850454833345424e+01,3.139191210806217569e+01,3.691874408867246871e+01
3.097445358209611754e+01,3.165952438996167473e+01,3.691391633510563963e+01
3.097040261585878085e+01,3.192713667186117377e+01,3.690908858153881766e+01
3.096635164962144771e+01,3.219474895376066570e+01,3.690426082797199570e+01
3.096230068338410746e+01,3.246236123566016829e+01,3.689943307440517373e+01
3.095824971714677076e+01,3.272997351755966378e+01,3.689460532083835176e+01
3.095419875090943762e+01,3.299758579945915926e+01,3.688977756727152268e+01
3.095014778467209737e+01,3.326519808135865475e+01,3.688494981370469361e+01
3.094609681843476423e+01,3.353281036325815734e+01,3.688012206013787164e+01
3.094204585219742754e+01,3.380042264515765282e+01,3.687529430657104967e+01
3.093799488596009084e+01,3.406803492705714831e+01,3.687046655300423481e+01
3.120318496842376277e+01,2.791925462806594638e+01,3.718650778650066258e+01
3.119913400218642607e+01,2.818686690996543831e+01,3.718168003293384061e+01
3.119508303594909293e+01,2.845447919186493735e+01,3.717685227936702574e+01
3.119103206971174913e+01,2.872209147376443639e+01,3.717202452580019667e+01
3.118698110347441599e+01,2.898970375566393542e+01,3.716719677223337470e+01
3.118293013723707929e+01,2.925731603756342736e+01,3.716236901866654563e+01
3.117887917099974260e+01,2.952492831946292640e+01,3.715754126509972366e+01
3.117482820476240946e+01,2.979254060136242543e+01,3.715271351153290169e+01
3.117077723852507276e+01,3.006015288326192447e+01,3.714788575796607972e+01
3.115457337357572598e+01,3.113060201085991352e+01,3.712857474369879185e+01
3.143596732098874824e+01,2.391137258427071899e+01,3.746392699146252170e+01
3.143191635475141155e+01,2.417898486617021092e+01,3.745909923789569973e+01
3.142786538851407485e+01,2.444659714806970996e+01,3.745427148432887066e+01
3.142381442227673816e+01,2.471420942996920900e+01,3.744944373076204869e+01
3.141976345603940501e+01,2.498182171186870804e+01,3.744461597719521961e+01
3.141571248980206832e+01,2.524943399376820352e+01,3.743978822362840475e+01
3.140355959109005468e+01,2.605227083946669708e+01,3.742530496292793174e+01
3.139950862485272154e+01,2.631988312136618902e+01,3.742047720936110977e+01
3.139545765861538484e+01,2.658749540326568805e+01,3.741564945579428780e+01
3.139140669237805170e+01,2.685510768516518709e+01,3.741082170222745873e+01
3.138735572614071501e+01,2.712271996706468613e+01,3.740599394866063676e+01
3.138330475990337476e+01,2.739033224896418162e+01,3.740116619509380769e+01
3.137925379366603806e+01,2.765794453086367710e+01,3.739633844152698572e+01
3.164039290989237330e+01,2.177677651377197066e+01,3.770755192145659862e+01
3.163634194365503660e+01,2.204438879567146614e+01,3.770272416788977665e+01
3.163229097741770346e+01,2.231200107757096518e+01,3.769789641432296179e+01
3.162824001118036676e+01,2.257961335947046067e+01,3.769306866075613982e+01
3.162418904494302652e+01,2.284722564136995970e+01,3.768824090718931075e+01
3.162013807870569337e+01,2.311483792326945519e+01,3.768341315362248878e+01
3.161608711246835668e+01,2.338245020516895423e+01,3.767858540005565970e+01
3.161203614623102354e+01,2.365006248706844971e+01,3.767375764648883774e+01
3.158367938256966667e+01,2.552334846036493232e+01,3.763996337152107685e+01
3.157962841633232998e+01,2.579096074226442781e+01,3.763513561795424778e+01
3.186912429622001852e+01,1.803650675187623875e+01,3.798014337285162867e+01
3.186507332998267827e+01,1.830411903377573779e+01,3.797531561928479960e+01
3.186102236374534513e+01,1.857173131567523328e+01,3.797048786571797763e+01
3.185697139750800844e+01,1.883934359757472876e+01,3.796566011215115566e+01
3.185292043127067529e+01,1.910695587947422780e+01,3.796083235858433369e+01
3.184886946503333860e+01,1.937456816137372684e+01,3.795600460501751172e+01
3.184481849879600190e+01,1.964218044327322232e+01,3.795117685145068975e+01
3.184076753255866166e+01,1.990979272517271781e+01,3.794634909788386068e+01
3.183671656632132496e+01,2.017740500707221685e+01,3.794152134431703871e+01
3.183266560008399182e+01,2.044501728897171589e+01,3.793669359075021674e+01
3.182861463384665512e+01,2.071262957087121137e+01,3.793186583718339477e+01
3.182456366760932198e+01,2.098024185277070686e+01,3.792703808361657281e+01
3.182051270137198529e+01,2.124785413467020589e+01,3.792221033004974373e+01
3.181646173513464504e+01,2.151546641656970493e+01,3.791738257648292176e+01
3.176379917404927511e+01,2.499442608126316756e+01,3.785462178011422196e+01
3.175974820781193841e+01,2.526203836316266305e+01,3.784979402654739999e+01
3.207760085136098382e+01,1.563429839947799493e+01,3.822859605641253467e+01
3.207354988512364713e+01,1.590191068137749220e+01,3.822376830284571270e+01
3.206949891888631754e+01,1.616952296327698946e+01,3.821894054927889073e+01
3.206544795264898084e+01,1.643713524517648850e+01,3.821411279571207587e+01
3.206139698641164415e+01,1.670474752707598398e+01,3.820928504214525390e+01
3.205734602017430035e+01,1.697235980897548302e+01,3.820445728857842482e+01
3.205329505393696365e+01,1.723997209087497851e+01,3.819962953501160285e+01
3.204924408769963406e+01,1.750758437277447754e+01,3.819480178144477378e+01
3.204519312146229737e+01,1.777519665467397303e+01,3.818997402787795181e+01
3.233468900134998592e+01,1.002074266428578397e+01,3.853498178277532560e+01
3.233063803511264922e+01,1.028835494618528124e+01,3.853015402920850363e+01
3.232658706887531253e+01,1.055596722808477850e+01,3.852532627564168166e+01
3.232253610263798294e+01,1.082357950998427576e+01,3.852049852207485969e+01
3.231443417016330244e+01,1.135880407378327028e+01,3.851084301494120865e+01
3.229823030521395566e+01,1.242925320138125933e+01,3.849153200067391367e+01
3.229417933897661896e+01,1.269686548328075659e+01,3.848670424710709170e+01
3.229012837273928227e+01,1.296447776518025385e+01,3.848187649354026973e+01
3.228607740650194557e+01,1.323209004707974934e+01,3.847704873997345487e+01
3.228202644026461599e+01,1.349970232897924838e+01,3.847222098640662580e+01
3.227797547402727929e+01,1.376731461087874386e+01,3.846739323283980383e+01
3.227392450778993549e+01,1.403492689277824290e+01,3.846256547927297476e+01
3.226987354155260590e+01,1.430253917467773839e+01,3.845773772570615279e+01
3.226582257531526921e+01,1.457015145657723743e+01,3.845290997213933082e+01
3.226177160907793251e+01,1.483776373847673291e+01,3.844808221857250885e+01
3.225772064284059581e+01,1.510537602037623195e+01,3.844325446500568688e+01
3.225366967660325201e+01,1.537298830227572743e+01,3.843842671143885781e+01
3.264849067866168753e+01,6.606149825006113474e-01,3.890895605907364541e+01
3.264443971242435083e+01,9.282272644001086093e-01,3.890412830550681633e+01
3.264038874618702124e+01,1.195839546299605871e+00,3.889930055193999436e+01
3.262823584747500405e+01,1.998676391998097657e+00,3.888481729123952135e+01
3.262418488123766735e+01,2.266288673897594474e+00,3.887998953767269938e+01
3.262013391500033777e+01,2.533900955797091736e+00,3.887516178410588452e+01
3.261608294876300107e+01,2.801513237696588998e+00,3.887033403053905545e+01
3.261203198252566438e+01,3.069125519596086260e+00,3.886550627697223348e+01
3.260798101628832768e+01,3.336737801495583522e+00,3.886067852340541151e+01
3.260393005005099099e+01,3.604350083395080784e+00,3.885585076983858244e+01
3.259987908381365429e+01,3.871962365294578046e+00,3.885102301627176047e+01
3.255936942144028734e+01,6.548085184289550220e+00,3.880274548060352657e+01
3.253506362401627428e+01,8.153758875686534680e+00,3.877377895920258766e+01
3.253101265777893758e+01,8.421371157586031941e+00,3.876895120563576569e+01
3.252696169154160089e+01,8.688983439485529203e+00,3.876412345206894372e+01
3.252291072530427130e+01,8.956595721385026465e+00,3.875929569850212175e+01
3.251885975906693460e+01,9.224208003284523727e+00,3.875446794493529978e+01
3.251480879282959080e+01,9.491820285184020989e+00,3.874964019136847071e+01
3.251075782659225410e+01,9.759432567083518251e+00,3.874481243780164164e+01
3.249050299540557774e+01,1.109749397658100456e+01,3.872067366996753179e+01
3.248240106293090435e+01,1.163271854037999908e+01,3.871101816283388786e+01
3.247835009669356765e+01,1.190033082227949635e+01,3.870619040926705878e+01
3.247429913045623096e+01,1.216794310417899361e+01,3.870136265570023681e+01
3.295824138973606665e+01,-8.431900417385064017e+00,3.927810258180513614e+01
3.289342592993868664e+01,-4.150103906993107827e+00,3.920085852473597043e+01
3.288937496370134994e+01,-3.882491625093611010e+00,3.919603077116914136e+01
3.288532399746401325e+01,-3.614879343194113748e+00,3.919120301760231229e+01
3.288127303122667655e+01,-3.347267061294616486e+00,3.918637526403549032e+01
3.287722206498933986e+01,-3.079654779395119224e+00,3.918154751046867545e+01
3.287317109875200316e+01,-2.812042497495621962e+00,3.917671975690185349e+01
3.286912013251466647e+01,-2.544430215596124700e+00,3.917189200333503152e+01
3.286506916627732977e+01,-2.276817933696627438e+00,3.916706424976820244e+01
3.286101820003999308e+01,-2.009205651797130177e+00,3.916223649620138048e+01
3.285696723380265638e+01,-1.741593369897632915e+00,3.915740874263455851e+01
3.285291626756532679e+01,-1.473981087998135653e+00,3.915258098906772943e+01
3.284886530132799010e+01,-1.206368806098638391e+00,3.914775323550090746e+01
3.284481433509064630e+01,-9.387565241991412401e-01,3.914292548193407839e+01
3.284076336885330960e+01,-6.711442422996439783e-01,3.913809772836725642e+01
3.283671240261597291e+01,-4.035319604001467164e-01,3.913326997480044156e+01
3.283266143637864332e+01,-1.359196785006494823e-01,3.912844222123361959e+01
3.282861047014130662e+01,1.316926033988477795e-01,3.912361446766679762e+01
3.282455950390396993e+01,3.993048852983450137e-01,3.911878671409996855e+01
3.280835563895462315e+01,1.469754012896334006e+00,3.909947569983267357e+01
3.280430467271728645e+01,1.737366294795831267e+00,3.909464794626585160e+01
3.276784597658125620e+01,4.145876831891306402e+00,3.905119816416443967e+01
3.276379501034392661e+01,4.413489113790803664e+00,3.904637041059761771e+01
3.275974404410658991e+01,4.681101395690301814e+00,3.904154265703080284e+01
3.275569307786925322e+01,4.948713677589798188e+00,3.903671490346397377e+01
3.275164211163191652e+01,5.216325959489296338e+00,3.903188714989715180e+01
3.274759114539457983e+01,5.483938241388792711e+00,3.902705939633032273e+01
3.274354017915724313e+01,5.751550523288290862e+00,3.902223164276350076e+01
3.273948921291990644e+01,6.019162805187787235e+00,3.901740388919667879e+01
3.273543824668256974e+01,6.286775087087285385e+00,3.901257613562985682e+01
3.272733631420789635e+01,6.821999650886279909e+00,3.900292062849620578e+01
3.272328534797055966e+01,7.089611932785775394e+00,3.899809287492938381e+01
3.271923438173322296e+01,7.357224214685274433e+00,3.899326512136256184e+01
3.271518341549589337e+01,7.624836496584769918e+00,3.898843736779573987e+01
3.271113244925855668e+01,7.892448778484268956e+00,3.898360961422891791e+01
3.407008341580301902e+01,-7.051164763337119723e+01,4.060314431076766084e+01
3.406603244956568233e+01,-7.024403535147169464e+01,4.059831655720083177e+01
3.404982858461633555e+01,-6.917358622387371270e+01,4.057900554293353679e+01
3.404577761837899885e+01,-6.890597394197421011e+01,4.057417778936671482e+01
3.402552278719231538e+01,-6.756791253247672557e+01,4.055003902153259787e+01
3.402147182095497868e+01,-6.730030025057722298e+01,4.054521126796577590e+01
3.401742085471764909e+01,-6.703268796867773460e+01,4.054038351439895393e+01
3.401336988848031240e+01,-6.676507568677823201e+01,4.053555576083213197e+01
3.398096215858161884e+01,-6.462417743158225392e+01,4.049693373229754201e+01
3.323558437091174511e+01,-1.538351756207476129e+01,3.960862707600204402e+01
3.322748243843707172e+01,-1.484829299827576676e+01,3.959897156886840008e+01
3.322343147219974213e+01,-1.458068071637627128e+01,3.959414381530157101e+01
3.321938050596239833e+01,-1.431306843447677224e+01,3.958931606173474904e+01
3.321532953972506164e+01,-1.404545615257727498e+01,3.958448830816791997e+01
3.321127857348772494e+01,-1.377784387067777772e+01,3.957966055460110510e+01
3.318697277606371188e+01,-1.217217017928079414e+01,3.955069403320015908e+01
3.318292180982637518e+01,-1.190455789738129688e+01,3.954586627963333711e+01
3.317887084358903849e+01,-1.163694561548179962e+01,3.954103852606651515e+01
3.317481987735169469e+01,-1.136933333358230414e+01,3.953621077249968607e+01
3.317076891111436510e+01,-1.110172105168280510e+01,3.953138301893287121e+01
3.315861601240235501e+01,-1.029888420598431509e+01,3.951689975823240530e+01
3.315456504616502542e+01,-1.003127192408481605e+01,3.951207200466557623e+01
3.315051407992768162e+01,-9.763659642185318788e+00,3.950724425109875426e+01
3.314646311369034493e+01,-9.496047360285821526e+00,3.950241649753192519e+01
3.314241214745300823e+01,-9.228435078386326040e+00,3.949758874396510322e+01
3.313836118121567154e+01,-8.960822796486827002e+00,3.949276099039828125e+01
3.313431021497834195e+01,-8.693210514587329740e+00,3.948793323683146639e+01
3.312620828250366145e+01,-8.157985950788335217e+00,3.947827772969781535e+01
3.312215731626633186e+01,-7.890373668888838843e+00,3.947344997613099338e+01
3.311810635002899517e+01,-7.622761386989341581e+00,3.946862222256416430e+01
3.311405538379165847e+01,-7.355149105089844319e+00,3.946379446899734234e+01
3.311000441755432178e+01,-7.087536823190347057e+00,3.945896671543052037e+01
3.310595345131697798e+01,-6.819924541290849795e+00,3.945413896186369129e+01
3.310190248507964839e+01,-6.552312259391352534e+00,3.944931120829686932e+01
3.309785151884231169e+01,-6.284699977491855272e+00,3.944448345473004736e+01
3.309380055260497500e+01,-6.017087695592358010e+00,3.943965570116323249e+01
3.308974958636763830e+01,-5.749475413692860748e+00,3.943482794759641052e+01
3.308569862013030161e+01,-5.481863131793363486e+00,3.943000019402958145e+01
3.307759668765562822e+01,-4.946638567994368962e+00,3.942034468689593041e+01
3.307354572141829152e+01,-4.679026286094871701e+00,3.941551693332910844e+01
3.306949475518095483e+01,-4.411414004195374439e+00,3.941068917976228647e+01
3.433122253202935070e+01,-7.639281565046290723e+01,4.091435779069727374e+01
3.432717156579202111e+01,-7.612520336856340464e+01,4.090953003713045177e+01
3.432312059955468442e+01,-7.585759108666391626e+01,4.090470228356362981e+01
3.431906963331735483e+01,-7.558997880476441367e+01,4.089987452999680784e+01
3.431501866708001103e+01,-7.532236652286491108e+01,4.089504677642997876e+01
3.431096770084267433e+01,-7.505475424096542270e+01,4.089021902286315679e+01
3.430691673460534474e+01,-7.478714195906592010e+01,4.088539126929632772e+01
3.430286576836800094e+01,-7.451952967716641751e+01,4.088056351572950575e+01
3.429881480213067135e+01,-7.425191739526692913e+01,4.087573576216268378e+01
3.429476383589333466e+01,-7.398430511336742654e+01,4.087090800859586892e+01
3.429071286965599796e+01,-7.371669283146792395e+01,4.086608025502903985e+01
3.428666190341865416e+01,-7.344908054956843557e+01,4.086125250146221788e+01
3.428261093718132457e+01,-7.318146826766893298e+01,4.085642474789539591e+01
3.427855997094398788e+01,-7.291385598576943039e+01,4.085159699432857394e+01
3.427450900470665118e+01,-7.264624370386994201e+01,4.084676924076174487e+01
3.427045803846931449e+01,-7.237863142197045363e+01,4.084194148719491579e+01
3.426640707223197779e+01,-7.211101914007095104e+01,4.083711373362809383e+01
3.426235610599464110e+01,-7.184340685817144845e+01,4.083228598006127186e+01
3.425830513975730440e+01,-7.157579457627196007e+01,4.082745822649445699e+01
3.425425417351996771e+01,-7.130818229437245748e+01,4.082263047292763503e+01
3.425020320728263812e+01,-7.104057001247295489e+01,4.081780271936081306e+01
3.424615224104529432e+01,-7.077295773057346651e+01,4.081297496579398398e+01
3.423399934233328423e+01,-6.997012088487497294e+01,4.079849170509351097e+01
3.422994837609595464e+01,-6.970250860297547035e+01,4.079366395152668900e+01
3.422589740985861795e+01,-6.943489632107596776e+01,4.078883619795986704e+01
3.421374451114660786e+01,-6.863205947537747420e+01,4.077435293725940113e+01
3.420969354490927117e+01,-6.836444719347798582e+01,4.076952518369257916e+01
3.420564257867193447e+01,-6.809683491157849744e+01,4.076469743012575009e+01
3.420159161243459778e+01,-6.782922262967899485e+01,4.075986967655892101e+01
3.417323484877324091e+01,-6.595593665638251935e+01,4.072607540159116724e+01
3.416918388253590422e+01,-6.568832437448301675e+01,4.072124764802433816e+01
3.416513291629856752e+01,-6.542071209258351416e+01,4.071641989445751619e+01
3.416108195006123793e+01,-6.515309981068402578e+01,4.071159214089069422e+01
3.415703098382389413e+01,-6.488548752878452319e+01,4.070676438732386515e+01
3.414892905134922785e+01,-6.435026296498551801e+01,4.069710888019022121e+01
3.414487808511189115e+01,-6.408265068308602963e+01,4.069228112662339925e+01
3.414082711887455446e+01,-6.381503840118653414e+01,4.068745337305657017e+01
3.413677615263721776e+01,-6.354742611928703155e+01,4.068262561948975531e+01
3.413272518639988107e+01,-6.327981383738753607e+01,4.067779786592292623e+01
3.412867422016254437e+01,-6.301220155548804769e+01,4.067297011235610427e+01
3.412462325392520768e+01,-6.274458927358854510e+01,4.066814235878928230e+01
3.412057228768787098e+01,-6.247697699168904961e+01,4.066331460522246033e+01
3.411652132145053429e+01,-6.220936470978954702e+01,4.065848685165563836e+01
3.411247035521319759e+01,-6.194175242789005154e+01,4.065365909808880929e+01
3.410841938897586090e+01,-6.167414014599055605e+01,4.064883134452198732e+01
3.410436842273852420e+01,-6.140652786409105346e+01,4.064400359095515824e+01
3.409221552402652122e+01,-6.060369101839256700e+01,4.062952033025469945e+01
3.408816455778917742e+01,-6.033607873649307152e+01,4.062469257668787037e+01
3.408411359155184783e+01,-6.006846645459356893e+01,4.061986482312104840e+01
3.408006262531451114e+01,-5.980085417269407344e+01,4.061503706955422643e+01
3.358179377812214739e+01,-2.688454349905591201e+01,4.002122338083495379e+01
3.357774281188481069e+01,-2.661693121715641297e+01,4.001639562726813182e+01
3.357369184564747400e+01,-2.634931893525691748e+01,4.001156787370130985e+01
3.356964087941013730e+01,-2.608170665335742200e+01,4.000674012013448078e+01
3.356558991317280061e+01,-2.581409437145792296e+01,4.000191236656765881e+01
3.356153894693546391e+01,-2.554648208955842392e+01,3.999708461300083684e+01
3.355748798069812722e+01,-2.527886980765892844e+01,3.999225685943400777e+01
3.355343701446079763e+01,-2.501125752575943295e+01,3.998742910586718580e+01
3.354938604822345383e+01,-2.474364524385993391e+01,3.998260135230035672e+01
3.354533508198611713e+01,-2.447603296196043487e+01,3.997777359873354186e+01
3.354128411574878044e+01,-2.420842068006093939e+01,3.997294584516671989e+01
3.353723314951144374e+01,-2.394080839816144390e+01,3.996811809159989792e+01
3.353318218327411415e+01,-2.367319611626194487e+01,3.996329033803307595e+01
3.351292735208743068e+01,-2.233513470676445678e+01,3.993915157019895190e+01
3.350887638585009398e+01,-2.206752242486496129e+01,3.993432381663213704e+01
3.350482541961275018e+01,-2.179991014296546581e+01,3.992949606306530796e+01
3.350077445337542059e+01,-2.153229786106596677e+01,3.992466830949848600e+01
3.348457058842608092e+01,-2.046184873346797772e+01,3.990535729523119102e+01
3.348051962218873712e+01,-2.019423645156847869e+01,3.990052954166436194e+01
3.347646865595140042e+01,-1.992662416966898320e+01,3.989570178809753997e+01
3.347241768971406373e+01,-1.965901188776948771e+01,3.989087403453071801e+01
3.346836672347672703e+01,-1.939139960586998868e+01,3.988604628096390314e+01
3.346431575723939744e+01,-1.912378732397049319e+01,3.988121852739708117e+01
3.346026479100205364e+01,-1.885617504207099415e+01,3.987639077383025210e+01
3.343190802734070388e+01,-1.698288906877451510e+01,3.984259649886249122e+01
3.342380609486603049e+01,-1.644766450497552057e+01,3.983294099172884017e+01
3.341570416239136421e+01,-1.591243994117652427e+01,3.982328548459519624e+01
3.341165319615402041e+01,-1.564482765927702879e+01,3.981845773102836716e+01
3.340355126367935412e+01,-1.510960309547803426e+01,3.980880222389472323e+01
3.337924546625533395e+01,-1.350392940408105069e+01,3.977983570249378431e+01
3.337519450001799726e+01,-1.323631712218155165e+01,3.977500794892696234e+01
3.337114353378066056e+01,-1.296870484028205617e+01,3.977018019536014037e+01
3.336709256754331676e+01,-1.270109255838255713e+01,3.976535244179331130e+01
3.336304160130598717e+01,-1.243348027648306164e+01,3.976052468822648933e+01
3.333873580388196700e+01,-1.082780658508607807e+01,3.973155816682555042e+01
3.333468483764463741e+01,-1.056019430318657903e+01,3.972673041325872845e+01
3.325366551289790351e+01,-5.207948665196634686e+00,3.963017534192226066e+01
3.438576237015153936e+01,-6.862575729068025510e+01,4.097935583871889520e+01
3.434930367401551621e+01,-6.621724675358477441e+01,4.093590605661748327e+01
3.432499787659149604e+01,-6.461157306218780150e+01,4.090693953521653725e+01
3.427233531550612611e+01,-6.113261339749433176e+01,4.084417873884784456e+01
3.424802951808210594e+01,-5.952693970609734464e+01,4.081521221744689853e+01
3.424397855184477635e+01,-5.925932742419784915e+01,4.081038446388007657e+01
3.423992758560743255e+01,-5.899171514229835367e+01,4.080555671031324749e+01
3.423587661937010296e+01,-5.872410286039885108e+01,4.080072895674643263e+01
3.423182565313276626e+01,-5.845649057849935559e+01,4.079590120317960356e+01
3.422777468689542246e+01,-5.818887829659986011e+01,4.079107344961278159e+01
3.422372372065809287e+01,-5.792126601470035752e+01,4.078624569604595962e+01
3.421967275442075618e+01,-5.765365373280086914e+01,4.078141794247913765e+01
3.421562178818341948e+01,-5.738604145090137365e+01,4.077659018891230858e+01
3.421157082194608279e+01,-5.711842916900187106e+01,4.077176243534548661e+01
3.420751985570874609e+01,-5.685081688710237557e+01,4.076693468177866464e+01
3.420346888947140940e+01,-5.658320460520287298e+01,4.076210692821184267e+01
3.419941792323407270e+01,-5.631559232330337750e+01,4.075727917464502070e+01
3.419536695699674311e+01,-5.604798004140388201e+01,4.075245142107819873e+01
3.419131599075939931e+01,-5.578036775950437942e+01,4.074762366751136966e+01
3.418321405828472592e+01,-5.524514319570538845e+01,4.073796816037772572e+01
3.416701019333538625e+01,-5.417469406810739940e+01,4.071865714611043074e+01
3.416295922709804955e+01,-5.390708178620790392e+01,4.071382939254360167e+01
3.415890826086071286e+01,-5.363946950430840133e+01,4.070900163897678681e+01
3.415485729462337616e+01,-5.337185722240891295e+01,4.070417388540996484e+01
3.415080632838603947e+01,-5.310424494050941746e+01,4.069934613184314287e+01
3.413865342967402938e+01,-5.230140809481091679e+01,4.068486287114266986e+01
3.411029666601267252e+01,-5.042812212151444129e+01,4.065106859617490898e+01
3.410624569977534293e+01,-5.016050983961493870e+01,4.064624084260808701e+01
3.410219473353799913e+01,-4.989289755771544321e+01,4.064141308904125793e+01
3.404548120621529250e+01,-4.614632561112248510e+01,4.057382453910572906e+01
3.398066574641791249e+01,-4.186452910073052891e+01,4.049658048203655625e+01
3.385913675929782585e+01,-3.383616064374560750e+01,4.035174787503185456e+01
3.381052516444978551e+01,-3.062481326095164391e+01,4.029381483222996962e+01
3.380647419821244881e+01,-3.035720097905214487e+01,4.028898707866315476e+01
3.379432129950044583e+01,-2.955436413335365486e+01,4.027450381796268886e+01
3.379027033326310914e+01,-2.928675185145415583e+01,4.026967606439585978e+01
3.378621936702577244e+01,-2.901913956955466034e+01,4.026484831082903071e+01
3.378216840078843575e+01,-2.875152728765516130e+01,4.026002055726220874e+01
3.377811743455109905e+01,-2.848391500575566582e+01,4.025519280369538677e+01
3.377406646831376946e+01,-2.821630272385616678e+01,4.025036505012856480e+01
3.377001550207642566e+01,-2.794869044195666774e+01,4.024553729656174283e+01
3.376596453583908897e+01,-2.768107816005717225e+01,4.024070954299492087e+01
3.376191356960175227e+01,-2.741346587815767677e+01,4.023588178942809890e+01
3.375786260336441558e+01,-2.714585359625817773e+01,4.023105403586127693e+01
3.370114907604171606e+01,-2.339928164966521607e+01,4.016346548592574806e+01
3.369709810980437226e+01,-2.313166936776572058e+01,4.015863773235891898e+01
3.369304714356703556e+01,-2.286405708586622154e+01,4.015380997879209701e+01
3.366874134614301539e+01,-2.125838339446923797e+01,4.012484345739115810e+01
3.366469037990568580e+01,-2.099077111256974248e+01,4.012001570382433613e+01
3.366063941366834911e+01,-2.072315883067024345e+01,4.011518795025751416e+01
3.362823168376965555e+01,-1.858226057547426535e+01,4.007656592172292420e+01
3.362418071753231885e+01,-1.831464829357476987e+01,4.007173816815610223e+01
3.362012975129498216e+01,-1.804703601167527438e+01,4.006691041458927316e+01
3.361607878505765257e+01,-1.777942372977577534e+01,4.006208266102245119e+01
3.361202781882031587e+01,-1.751181144787627630e+01,4.005725490745562922e+01
3.360797685258297918e+01,-1.724419916597677727e+01,4.005242715388880725e+01
3.359987492010830579e+01,-1.670897460217778629e+01,4.004277164675516332e+01
3.359177298763363240e+01,-1.617375003837879177e+01,4.003311613962151938e+01
3.355531429149760214e+01,-1.376523950128331641e+01,3.998966635752010745e+01
3.351075366288690560e+01,-1.082150440038884653e+01,3.993656106828504448e+01
3.435928288352700122e+01,-5.550645329290765773e+01,4.094779881540404176e+01
3.435118095105232783e+01,-5.497122872910865965e+01,4.093814330827039782e+01
3.434712998481499824e+01,-5.470361644720916416e+01,4.093331555470357586e+01
3.430662032244163129e+01,-5.202749362821419510e+01,4.088503801903534196e+01
3.430256935620430170e+01,-5.175988134631469251e+01,4.088021026546851999e+01
3.429851838996695079e+01,-5.149226906441519702e+01,4.087538251190169802e+01
3.429446742372962120e+01,-5.122465678251570154e+01,4.087055475833487606e+01
3.429041645749228451e+01,-5.095704450061619895e+01,4.086572700476804698e+01
3.428636549125494781e+01,-5.068943221871670346e+01,4.086089925120122501e+01
3.427016162630560103e+01,-4.961898309111871441e+01,4.084158823693393003e+01
3.426611066006826434e+01,-4.935137080921921893e+01,4.083676048336710807e+01
3.426205969383093475e+01,-4.908375852731972344e+01,4.083193272980028610e+01
3.425800872759359805e+01,-4.881614624542022085e+01,4.082710497623346413e+01
3.423370293016957788e+01,-4.721047255402324083e+01,4.079813845483252521e+01
3.422965196393224119e+01,-4.694286027212374535e+01,4.079331070126569614e+01
3.421344809898290151e+01,-4.587241114452575630e+01,4.077399968699840827e+01
3.420939713274555771e+01,-4.560479886262626081e+01,4.076917193343157919e+01
3.420534616650822102e+01,-4.533718658072675822e+01,4.076434417986475722e+01
3.420129520027088432e+01,-4.506957429882726274e+01,4.075951642629793525e+01
3.419724423403354763e+01,-4.480196201692776725e+01,4.075468867273111329e+01
3.419319326779621804e+01,-4.453434973502826466e+01,4.074986091916428421e+01
3.418914230155888134e+01,-4.426673745312876918e+01,4.074503316559746224e+01
3.418509133532153754e+01,-4.399912517122927369e+01,4.074020541203063317e+01
3.418104036908420085e+01,-4.373151288932977820e+01,4.073537765846381120e+01
3.417698940284686415e+01,-4.346390060743028272e+01,4.073054990489699634e+01
3.417293843660953456e+01,-4.319628832553078013e+01,4.072572215133017437e+01
3.416888747037219787e+01,-4.292867604363128464e+01,4.072089439776335240e+01
3.416483650413486117e+01,-4.266106376173178916e+01,4.071606664419653043e+01
3.416078553789752448e+01,-4.239345147983228657e+01,4.071123889062970136e+01
3.415673457166018778e+01,-4.212583919793279108e+01,4.070641113706287939e+01
3.414863263918551439e+01,-4.159061463413380011e+01,4.069675562992922835e+01
3.414458167294818480e+01,-4.132300235223430462e+01,4.069192787636240638e+01
3.414053070671084100e+01,-4.105539007033480203e+01,4.068710012279558441e+01
3.411217394304949124e+01,-3.918210409703832653e+01,4.065330584782781642e+01
3.410812297681214744e+01,-3.891449181513882394e+01,4.064847809426099445e+01
3.410407201057481785e+01,-3.864687953323932845e+01,4.064365034069417248e+01
3.410002104433748116e+01,-3.837926725133983297e+01,4.063882258712735762e+01
3.409597007810013736e+01,-3.811165496944033038e+01,4.063399483356052855e+01
3.409191911186280777e+01,-3.784404268754083489e+01,4.062916707999370658e+01
3.408786814562547107e+01,-3.757643040564134651e+01,4.062433932642687751e+01
3.408381717938813438e+01,-3.730881812374184392e+01,4.061951157286005554e+01
3.407976621315079768e+01,-3.704120584184234843e+01,4.061468381929323357e+01
3.407571524691346809e+01,-3.677359355994284584e+01,4.060985606572641160e+01
3.407166428067612429e+01,-3.650598127804335036e+01,4.060502831215958253e+01
3.406761331443878760e+01,-3.623836899614385487e+01,4.060020055859276056e+01
3.406356234820145090e+01,-3.597075671424435228e+01,4.059537280502594569e+01
3.405951138196411421e+01,-3.570314443234485680e+01,4.059054505145912373e+01
3.405546041572678462e+01,-3.543553215044536842e+01,4.058571729789229465e+01
3.405140944948944082e+01,-3.516791986854586582e+01,4.058088954432546558e+01
3.404735848325210412e+01,-3.490030758664637034e+01,4.057606179075864361e+01
3.404330751701477453e+01,-3.463269530474686775e+01,4.057123403719182164e+01
3.403925655077743784e+01,-3.436508302284737226e+01,4.056640628362499967e+01
3.403520558454010114e+01,-3.409747074094787678e+01,4.056157853005817771e+01
3.402710365206542065e+01,-3.356224617714887870e+01,4.055192302292452666e+01
3.402305268582809106e+01,-3.329463389524938322e+01,4.054709526935771180e+01
3.401900171959075436e+01,-3.302702161334988773e+01,4.054226751579088273e+01
3.401495075335341767e+01,-3.275940933145039224e+01,4.053743976222406076e+01
3.401089978711608097e+01,-3.249179704955088965e+01,4.053261200865723879e+01
3.400684882087873717e+01,-3.222418476765139417e+01,4.052778425509040972e+01
3.400279785464140758e+01,-3.195657248575189513e+01,4.052295650152358775e+01
3.399874688840407089e+01,-3.168896020385240320e+01,4.051812874795676578e+01
3.399469592216673419e+01,-3.142134792195290416e+01,4.051330099438994381e+01
3.399064495592939750e+01,-3.115373564005340512e+01,4.050847324082312184e+01
3.398659398969206791e+01,-3.088612335815390608e+01,4.050364548725629277e+01
3.397444109098005782e+01,-3.008328651245541607e+01,4.048916222655582686e+01
3.397039012474272113e+01,-2.981567423055591703e+01,4.048433447298900489e+01
3.386101403633463747e+01,-2.259014261926949274e+01,4.035398512668477622e+01
3.385696307009730077e+01,-2.232253033736999370e+01,4.034915737311795425e+01
3.385291210385996408e+01,-2.205491805547050177e+01,4.034432961955112518e+01
3.384886113762262738e+01,-2.178730577357100273e+01,4.033950186598430321e+01
3.384481017138529069e+01,-2.151969349167150369e+01,4.033467411241747413e+01
3.373543408297721413e+01,-1.429416188038507940e+01,4.020432476611324546e+01
3.373138311673987744e+01,-1.402654959848558214e+01,4.019949701254642349e+01
3.372328118426520405e+01,-1.349132503468658761e+01,4.018984150541277955e+01
3.368277152189183710e+01,-1.081520221569161500e+01,4.014156396974454566e+01
3.451509687758259304e+01,-5.442970198061243536e+01,4.113349070259625506e+01
3.451104591134526345e+01,-5.416208969871293988e+01,4.112866294902943309e+01
3.450699494510791965e+01,-5.389447741681343729e+01,4.112383519546261113e+01
3.442597562036119285e+01,-4.854223177882349916e+01,4.102728012412613623e+01
3.442192465412386326e+01,-4.827461949692399656e+01,4.102245237055931426e+01
3.441787368788652657e+01,-4.800700721502450108e+01,4.101762461699249229e+01
3.441382272164918987e+01,-4.773939493312500559e+01,4.101279686342567032e+01
3.440977175541185318e+01,-4.747178265122550300e+01,4.100796910985884836e+01
3.439761885669984309e+01,-4.666894580552701655e+01,4.099348584915838245e+01
3.439356789046250640e+01,-4.640133352362752106e+01,4.098865809559155338e+01
3.438951692422517681e+01,-4.613372124172801847e+01,4.098383034202473141e+01
3.430849759947844291e+01,-4.078147560373807323e+01,4.088727527068826362e+01
3.430444663324111332e+01,-4.051386332183858485e+01,4.088244751712144165e+01
3.430039566700376952e+01,-4.024625103993908226e+01,4.087761976355461968e+01
3.429634470076643993e+01,-3.997863875803958678e+01,4.087279200998779771e+01
3.429229373452910323e+01,-3.971102647614008418e+01,4.086796425642096864e+01
3.428824276829175943e+01,-3.944341419424058870e+01,4.086313650285413956e+01
-1.088953193756848314e+01,1.398900899732754226e+02,-2.991874310689933480e+01
-1.089161938778015681e+01,1.401627038663681049e+02,-2.992447832922015039e+01
-1.089370683799183048e+01,1.404353177594607871e+02,-2.993021355154096241e+01
-1.079003014414533368e+01,1.390783515901114242e+02,-2.964536417627399700e+01
-1.079211759435700735e+01,1.393509654832041065e+02,-2.965109939859480903e+01
-1.079420504456868279e+01,1.396235793762967603e+02,-2.965683462091561751e+01
-1.069261580093385611e+01,1.385392271000400797e+02,-2.937772046796946412e+01
-1.069470325114553333e+01,1.388118409931327335e+02,-2.938345569029027615e+01
-1.069887815156888067e+01,1.393570687793180980e+02,-2.939492613493190021e+01
-1.059102655729903120e+01,1.374548748237833706e+02,-2.909860631502330719e+01
-1.059311400751070842e+01,1.377274887168760529e+02,-2.910434153734411922e+01
-1.059520145772238209e+01,1.380001026099687351e+02,-2.911007675966493125e+01
-1.059728890793405576e+01,1.382727165030614174e+02,-2.911581198198574327e+01
-1.048943731366420806e+01,1.363705225475266900e+02,-2.881949216207716091e+01
-1.049152476387588528e+01,1.366431364406193723e+02,-2.882522738439796939e+01
-1.049361221408755895e+01,1.369157503337120545e+02,-2.883096260671878142e+01
-1.049569966429923440e+01,1.371883642268047083e+02,-2.883669782903959700e+01
-1.038993552024106037e+01,1.355587841643626632e+02,-2.854611323145181245e+01
-1.039202297045273404e+01,1.358313980574553455e+02,-2.855184845377262803e+01
-1.039411042066440949e+01,1.361040119505480277e+02,-2.855758367609343651e+01
-1.039619787087608316e+01,1.363766258436406815e+02,-2.856331889841424854e+01
-1.029252117702958458e+01,1.350196596742913187e+02,-2.827846952314727957e+01
-1.029460862724125825e+01,1.352922735673840009e+02,-2.828420474546809515e+01
-1.019301938360643511e+01,1.342079212911273203e+02,-2.800509059252194177e+01
-1.019510683381810878e+01,1.344805351842199741e+02,-2.801082581484275025e+01
-1.019719428402978245e+01,1.347531490773126563e+02,-2.801656103716356583e+01
-1.019928173424145612e+01,1.350257629704053386e+02,-2.802229625948437430e+01
-1.009351759018328565e+01,1.333961829079632935e+02,-2.773171166189660042e+01
-1.009560504039495932e+01,1.336687968010559473e+02,-2.773744688421741245e+01
-1.009769249060663299e+01,1.339414106941486295e+02,-2.774318210653822447e+01
-1.009977994081831021e+01,1.342140245872413118e+02,-2.774891732885903650e+01
-9.996103246971808076e+00,1.328570584178919489e+02,-2.746406795359206754e+01
-9.998190697183483522e+00,1.331296723109846312e+02,-2.746980317591287957e+01
-1.000027814739515897e+01,1.334022862040773134e+02,-2.747553839823369159e+01
-9.896601453548658611e+00,1.320453200347279221e+02,-2.719068902296672618e+01
-9.898688903760335833e+00,1.323179339278206044e+02,-2.719642424528754177e+01
-9.900776353972009503e+00,1.325905478209132582e+02,-2.720215946760835024e+01
-9.797099660125510923e+00,1.312335816515638953e+02,-2.691731009234138128e+01
-9.799187110337184592e+00,1.315061955446565776e+02,-2.692304531466219331e+01
-9.801274560548858261e+00,1.317788094377492598e+02,-2.692878053698300889e+01
-9.803362010760533707e+00,1.320514233308419421e+02,-2.693451575930381736e+01
-9.701772767125708796e+00,1.309670710545852330e+02,-2.665540160635766398e+01
-9.703860217337384242e+00,1.312396849476779153e+02,-2.666113682867847956e+01
-9.606445874125906670e+00,1.307005604576065707e+02,-2.639349312037394668e+01
-9.608533324337583892e+00,1.309731743506992530e+02,-2.639922834269475516e+01
-9.506944080702757205e+00,1.298888220744425439e+02,-2.612011418974860177e+01
-9.509031530914434427e+00,1.301614359675352262e+02,-2.612584941206941380e+01
-9.511118981126108096e+00,1.304340498606279084e+02,-2.613158463439022583e+01
-9.409529737491283186e+00,1.293496975843712278e+02,-2.585247048144406889e+01
-9.411617187702958631e+00,1.296223114774639100e+02,-2.585820570376488092e+01
-9.413704637914632301e+00,1.298949253705565638e+02,-2.586394092608569650e+01
-9.312115394279809166e+00,1.288105730942998832e+02,-2.558482677313954312e+01
-9.314202844491482836e+00,1.290831869873925370e+02,-2.559056199546035160e+01
-7.624063989772387195e+00,-7.946033793239213594e+01,-2.094694365637674593e+01
-7.626151439984061753e+00,-7.918772403929945369e+01,-2.095267887869755441e+01
-7.628238890195736310e+00,-7.891511014620678566e+01,-2.095841410101836644e+01
-9.214701051068331594e+00,1.282714486042285387e+02,-2.531718306483501024e+01
-9.216788501280008816e+00,1.285440624973212209e+02,-2.532291828715581872e+01
-9.218875951491682486e+00,1.288166763904139032e+02,-2.532865350947663430e+01
-7.560048849947702543e+00,-7.563764013298063560e+01,-2.077106350520519129e+01
-7.562136300159377988e+00,-7.536502623988795335e+01,-2.077679872752600687e+01
-7.564223750371051658e+00,-7.509241234679527111e+01,-2.078253394984681535e+01
-7.566311200582726215e+00,-7.481979845370258886e+01,-2.078826917216762737e+01
-7.568398650794401661e+00,-7.454718456060992082e+01,-2.079400439448843940e+01
-7.570486101006076218e+00,-7.427457066751723858e+01,-2.079973961680925143e+01
-7.572573551217749888e+00,-7.400195677442455633e+01,-2.080547483913006346e+01
-7.574661001429425333e+00,-7.372934288133188829e+01,-2.081121006145087549e+01
-7.576748451641099003e+00,-7.345672898823920605e+01,-2.081694528377168396e+01
-7.578835901852772672e+00,-7.318411509514652380e+01,-2.082268050609249599e+01
